# .PCD v0.7 - Point Cloud Data file format
VERSION 0.7
FIELDS x y z intensity
SIZE 4 4 4 4
TYPE F F F F
COUNT 1 1 1 1
WIDTH 1239
HEIGHT 1
VIEWPOINT 0 0 0 1 0 0 0
POINTS 1239
DATA ascii
205.64612 89.458107 3.6475327 70.924034
206.36221 89.109802 3.4886761 72.608978
207.41684 89.239258 3.602298 70.235153
208.37155 89.311111 3.6384816 71.844917
209.35826 89.506943 3.7119157 90.066284
210.30023 89.434647 3.8137879 69.063072
211.41336 89.554184 3.7792509 47.550179
212.61865 89.808655 3.8882208 86.160622
213.38232 89.183929 3.8299339 68.680634
214.7496 89.690788 3.9513528 60.674263
215.08766 89.896286 3.9986203 61
176.54762 90.099335 3.4041998 123.33047
179.98354 90.133774 3.8661613 76.421829
180.00925 90.188171 3.923178 88.660713
185.9686 90.498322 3.9089923 45.717148
186.6662 90.807877 3.6968141 46.303314
187.52774 90.739212 3.1696668 59.560604
188.69598 90.779266 3.0123587 75.018173
189.53656 90.720657 3.1333132 50.070175
190.36519 90.066589 3.7009099 73.328842
191.5831 90.267761 3.0166283 56.858723
192.86264 90.515839 3.0108144 42.21875
193.42964 90.377457 3.0534592 32.523438
194.62485 90.442459 3.1089253 35.941406
195.45844 90.681099 3.1162946 21.82476
196.81729 90.723495 3.2206125 29.901901
197.5184 90.199333 3.4162626 55.555855
198.39653 90.215385 3.1590095 84.485741
199.74655 90.46666 3.4203222 41.827534
200.25912 90.39856 3.4052718 37.474216
201.88211 90.067245 3.478709 69.529709
202.76263 90.270325 3.6874776 51.068169
203.66014 90.084465 3.4688663 70.977966
204.68938 90.121269 3.5280495 79.788979
205.55664 90.106155 3.5462465 74.342651
206.92029 90.159157 3.5947413 65.179779
207.4106 90.174683 3.6367254 72.558205
208.43452 90.359627 3.6915617 126.66494
209.58353 90.599213 3.7511277 110.4744
210.7157 90.578293 3.84409 122.8812
211.61053 90.179893 3.8431258 83.21582
212.73117 90.169159 3.9047132 94.835793
213.06493 90.614754 3.986661 103.532
214.81628 90.367233 3.9954484 74.38501
176.50996 91.056183 3.5601039 135.36209
179.97844 91.399803 3.879082 72.208107
180.00865 91.272232 3.8862352 87
185.9848 91.751343 3.9009068 56.236248
186.43059 91.216621 3.8897543 61.294544
187.77962 91.610855 3.0587866 76.608818
188.86377 91.58725 3.0879242 77.323242
189.65875 91.189674 3.1728945 102.35887
190.31662 91.477638 3.8570302 45.975193
191.55713 91.396667 3.0905588 50.947914
192.36539 91.17038 3.0944355 33.818878
193.87155 91.138748 3.162271 42.451099
194.25517 91.16597 3.1440134 31.328125
195.49968 91.439796 3.1829188 28.777779
196.42273 91.343254 3.4035873 37.66481
197.65057 91.308136 3.2532859 26.077225
198.82486 91.316154 3.2809548 23.088543
199.2037 91.376892 3.331974 18
200.78143 91.649017 3.5061121 34.527775
201.94653 91.014267 3.8067501 67.299805
202.90215 91.333801 3.8485665 51.580311
203.92534 91.140175 3.6031785 82.524353
204.69189 91.07312 3.6230762 69.005081
205.76167 91.165215 3.6585994 120.03281
206.26688 91.144768 3.6968341 62.253349
207.38545 91.37545 3.6698425 69.162285
208.6284 91.095375 3.7324917 120.35458
209.85461 91.148064 3.8273029 151.436
210.69267 91.150368 3.8790977 111.70744
211.15683 91.443039 3.921927 109.70671
212.10957 91.26651 3.9441056 101.77302
213.18173 91.235336 3.9918618 69.293274
214.10052 91.101891 3.9960945 53.603588
215.27217 91.115059 3.9971521 45
177.87482 92.657883 3.1436148 50.168427
178.32375 92.713608 3.566555 143.03188
179.49474 92.203819 3.9063745 84.161911
185.96262 92.163513 3.2005992 49
186.41431 92.107735 3.7621901 56.104645
187.89018 92.37458 3.087363 88.606277
188.88904 92.19352 3.1274672 81.06292
189.76654 92.420074 3.6544831 44.201187
190.33466 92.167305 3.6954451 37.152534
191.51431 92.024544 3.2005024 35.5
193.03079 92.055466 3.2654529 45.75
194.28809 92.153709 3.2829599 46.847218
195.23737 92.152954 3.2640355 49.069447
197.56873 92.148628 3.3719184 62.951172
198.49417 92.350525 3.389667 38.765297
199.63757 92.498108 3.4182165 30.628391
201.90369 92.162895 3.5547733 52.957031
202.47479 92.32431 3.5978844 50.5
203.75572 92.117744 3.8453765 49.011818
204.89978 92.074944 3.7680671 58.216938
205.55667 92.106026 3.7629488 75.552353
206.90109 92.115509 3.7730536 68.461304
207.44933 92.063438 3.7680852 56.638172
208.46545 92.099922 3.778209 64.217522
209.63795 92.482254 3.8920498 96.574112
210.3687 92.199463 3.9027379 164.63942
211.33084 92.178276 3.9473107 124.53409
212.31775 92.068535 3.9789333 101.392
213.09145 92.236275 3.9818721 58.378113
214.12323 92.450821 3.9897451 88.444443
177.84465 93.299881 3.2452841 110.39674
178.26682 93.113152 3.6680803 145.56052
179.771 93.765854 3.7715573 64.177773
180.23846 93.912399 3.8672371 106.53846
184.94337 93.886581 3.1731033 86.650002
185.5307 93.839233 3.1618655 55.686989
186.94707 93.782417 3.1105118 85.957092
187.85461 93.594223 3.0889249 83.810799
188.8373 93.670219 3.1641212 86.274529
189.75702 93.533417 3.1905553 87.487137
190.37744 93.781509 3.7028315 54.365543
191.7639 93.787216 3.3862708 92.1875
199.93616 93.170952 3.5408359 38.65625
200.28307 93.166039 3.5137291 35.947914
201.56578 93.066986 3.5891373 32.25
202.92638 93.701385 3.7790499 42.619793
203.73822 93.749084 3.9280198 45.815693
204.45416 93.054008 3.9237852 50.644444
205.96104 93.040474 3.8576825 92.501144
206.70343 93.13398 3.8429685 65.328384
207.65482 93.224457 3.8162899 67.213882
208.49323 93.454506 3.8392591 109.08963
209.75359 93.122467 3.9104381 63.255322
210.14969 93.060486 3.9238682 58.106346
211.14343 93.402473 3.9969089 58.289425
212.25012 93.470154 3.9630151 66.375
213.2408 93.391014 3.9810803 26
175.58276 94.244736 3.2213907 60.042683
177.47037 94.325607 3.2439644 88.908211
178.17845 94.240753 3.5038743 125.04195
179.77649 94.370811 3.790977 64.052635
180.16219 94.248787 3.837837 68.458328
182.88388 94.148064 3.9882102 87
183.68243 94.851463 3.9239733 148.29707
184.961 94.563118 3.4606707 54.039642
185.56744 94.681801 3.09659 77.561218
186.77586 94.570549 3.0917778 97.822205
187.80013 94.369354 3.1172407 88.246178
188.79729 94.285957 3.2017031 89.788055
189.79784 94.400429 3.231792 94.628685
190.6602 94.318237 3.5673172 56.261677
191.36255 94.150192 3.5655079 69.620316
192.08566 94.107544 3.4951401 113
202.94504 94.148911 3.9776163 48.078125
203.01859 94.036476 3.9226215 59
204.98412 94.221718 3.8610835 64.007812
205.94493 94.20153 3.9761035 79.489388
206.84528 94.236511 3.948863 78.244331
207.80562 94.148354 3.9856148 87.584229
208.7009 94.072372 3.8999472 60.485466
209.80493 94.604836 3.9604838 77.320099
210.50699 94.494675 3.9919205 57.626625
211.05005 94.14917 3.9966695 49.498699
212.54187 94.322235 3.9859529 59.75
175.52742 95.410072 3.043045 38.304016
178.37822 95.240814 3.3829122 90.111702
179.32022 95.499916 3.7647634 55.150856
180.05624 95.374405 3.9535575 76.599998
182.99489 95.439674 3.9559593 75.962959
183.88466 95.74559 3.5135369 93.006119
184.17894 95.376633 3.3225513 55.695312
185.77986 95.784927 3.048701 84.91124
186.64095 95.608871 3.1202273 84.994431
187.84415 95.086159 3.9526892 114.92568
188.70168 95.087318 3.9616668 104.59808
189.45573 95.412392 3.5784991 46.129475
190.54884 95.53669 3.6225462 71.971024
191.67943 95.821709 3.9014397 111.52301
192.72855 95.766739 3.7722664 74.836418
193.14825 95.593071 3.7255116 59.416668
203.43542 95.971924 3.8872318 62.5
206.8175 95.115784 3.9925556 94.35836
207.07837 95.098877 3.9960632 88.590179
208.92322 95.332993 3.9337442 82.241379
209.63185 95.244804 3.9906225 124.65417
210.09343 95.130058 3.9965641 55.006538
211.2627 95.472 3.9868369 65.4375
212.1651 95.904953 3.9939127 63
175.22266 96.65284 3.3577113 115.72707
178.45441 96.176506 3.4215748 124.89005
179.34164 96.297485 3.4385912 54.505848
182.94046 96.829506 3.9243081 81.350571
183.74243 96.666389 3.7537024 130.09911
184.87006 96.586311 3.06722 125.72718
185.76192 96.464973 3.0698798 79.976112
186.79449 96.76149 3.8778644 119.44604
187.2988 96.739059 3.9098463 96.980438
188.12772 96.529785 3.889909 87.366661
189.75484 96.231316 3.6799178 119.24325
190.43863 96.066727 3.8734386 77.71875
191.28943 96.199287 3.6797268 69.527603
192.45546 96.159698 3.8775826 88.214287
202.21567 96.435524 3.9213529 58.5
203.6369 96.383217 3.9014773 24
205.87682 96.079185 3.9911218 75
206.98383 96.115906 3.9973283 93
207.28651 96.04628 3.992651 92.75
208.99373 96.044617 3.9688921 83.5
209.37175 96.458153 3.9931781 80.816505
210.12479 96.241341 3.9887285 120.75
175.07539 97.170158 3.439656 39.75016
176.80739 97.711891 3.0751293 76.902435
177.57697 97.631668 3.0561743 94.908768
178.66829 97.268883 3.4629605 101.93027
179.22139 97.480812 3.7110198 58.711849
182.9313 97.380943 3.9715586 81.411255
183.53432 97.632713 3.593024 114.0188
184.74908 97.43708 3.0686767 105.90601
185.81709 97.58551 3.1179001 91.155823
186.50899 97.469826 3.8781693 96.561592
187.50285 97.402237 3.8915217 92.695984
189.89865 97.29509 3.7853298 78.416229
190.52116 97.338783 3.9729664 53.89093
191.85004 97.75293 3.7486963 55.847687
192.01889 97.743622 3.7351909 99.5
202.95416 97.143936 3.9421382 26
209.56799 97.066872 3.9904358 79.236115
210.48454 97.263474 3.9986212 89.5
175.17813 98.553131 3.2536387 39.854553
176.60736 98.302704 3.4820161 26.888885
177.58105 98.177956 3.3757217 24.69755
178.78427 98.570618 3.4986889 48.93428
179.30086 98.25914 3.2286503 59.231171
182.85977 98.77504 3.8685842 81.22892
183.31694 98.637306 3.0602598 76.49305
184.90875 98.518593 3.0687997 88.299049
185.70529 98.872986 3.1040063 99.492119
186.23161 98.402267 3.2981448 88.883621
189.85692 98.354141 3.8546612 37.083336
191.70428 98.077194 3.8643174 35.348957
192.19743 98.740891 3.6726069 55
209.99457 98.018578 3.99685 77
210.09769 98.226883 3.995506 65
175.20937 99.693726 3.1669636 95.9216
176.59639 99.798126 3.3479552 35.995945
177.85672 99.66806 3.2954388 70.076378
178.72949 99.694443 3.3295631 43.768158
179.51945 99.367653 3.3622012 41.105995
182.81723 99.5811 3.6715996 76.589752
183.7583 99.496765 3.0256491 73.979774
184.77045 99.833382 3.0794747 94.629234
185.73387 99.277718 3.1142251 97.19516
186.01208 99.345901 3.136306 86
190.47353 99.312752 3.7742393 37.48148
192.54684 99.665703 3.9715693 86.183006
175.31262 100.3179 3.1367691 72.774948
176.67867 100.38393 3.5039384 23.523649
177.2659 100.40056 3.5257845 13.913324
178.73386 100.60286 3.2441516 50.461277
179.77071 100.52202 3.3379078 93.443314
182.72137 100.79297 3.8915753 82.558716
183.72896 100.58755 3.1065769 100.71964
184.67212 100.60926 3.1460226 89.41555
185.53516 100.17504 3.1268859 83.028313
186.16974 100.14032 3.8923974 47.599998
192.37274 100.32467 3.9764972 92.516396
175.06862 101.26688 3.1175706 66.255539
176.90674 101.77128 3.4847107 19.880997
177.74292 101.78732 3.5393028 49.365025
178.47456 101.79147 3.5389912 57.781025
179.71768 101.18811 3.3777218 99.49588
182.89276 101.26054 3.8585048 186.55247
183.87091 101.44418 3.7896514 64.309036
184.6593 101.63959 3.3611403 69.864609
185.39166 101.76168 3.1276739 71.869232
189.93256 101.83913 3.8515365 128
190.61403 101.72668 3.8659322 121.59492
191.21919 101.22397 3.7339411 13.666667
192.36897 101.16306 3.91664 72.847221
175.0321 102.41972 3.4426131 47.085155
176.33408 102.19676 3.4806607 30.760101
177.44992 102.26494 3.2822449 50.768955
178.92212 102.50665 3.877423 50.56097
179.71175 102.48859 3.6164961 92.672028
182.91124 102.26837 3.9262688 91
183.63162 102.74679 3.4317622 95.050003
184.40294 102.42683 3.1302869 82.413933
185.05615 102.87933 3.1009748 62
189.87602 102.00703 3.9199157 139
190.84628 102.30981 3.7789609 112.65913
191.5121 102.68815 3.8228881 83.005173
176.87476 103.79714 3.6132989 109.86973
177.90041 103.81336 3.6291881 101.81389
178.67699 103.8665 3.6565247 86.737854
179.68103 103.48951 3.7554173 91.521431
183.42126 103.54211 3.6284235 92
184.78462 103.68464 3.1120236 58.283951
185.28802 103.70035 3.134505 62.680557
176.24858 104.38048 3.5568116 45.21627
177.45959 104.29501 3.4375536 35.875
178.79472 104.51736 3.7309413 56.6479
179.6114 104.28808 3.6935871 95.410217
182.94263 104.23566 3.9698846 133.29167
183.52316 104.44896 3.4497294 80.047195
184.4223 104.83749 3.1034472 71.293983
191.88873 104.95438 3.977381 195
192.93224 104.58759 3.8292403 93.73333
193.5563 104.31265 3.9167733 85.460663
176.35092 105.83064 3.5397782 54.032703
177.49399 105.86028 3.494276 42.801338
178.89917 105.3653 3.7649078 35.950569
179.63397 105.29829 3.7241042 93.04409
182.58325 105.90356 3.9910564 82
183.79387 105.40332 3.0955265 71.515076
184.62479 105.75069 3.135829 74.70192
185.27745 105.47369 3.1765862 89.958336
192.84991 105.53541 3.7849081 82.257935
193.16403 105.77763 3.8974633 104.41142
176.28082 106.45485 3.5275676 63.950287
177.7644 106.55112 3.3344624 87.630005
178.90598 106.24945 3.849112 24.392092
179.80254 106.73783 3.8080947 105.13284
180.0741 106.72991 3.8404875 90
182.75128 106.83277 3.8063455 114.48251
183.70567 106.76942 3.1883144 129.30351
184.18938 106.93823 3.1398518 70.833336
185.3631 106.90028 3.2637169 96
192.31873 106.27687 3.8455749 110.75
193.07458 106.50002 3.8918839 94.875
176.6859 107.09675 3.2465045 95.614677
177.71954 107.91265 3.7255363 74.085449
178.5193 107.90779 3.7751842 74.771095
179.50075 107.22937 3.7816715 90.274445
182.53539 107.47206 3.9578381 74.308533
183.51724 107.48772 3.5433869 116.71534
184.48055 107.4241 3.2048438 87.289948
185.17499 107.07031 3.2492692 85.333336
192.86722 107.66988 3.8455486 131.89999
193.13622 107.5079 3.8658984 101.45834
176.41165 108.64951 3.4749532 31.49375
177.72879 108.64999 3.5095086 78.473953
178.27716 108.77755 3.3467348 71.111778
179.47275 108.32344 3.7831061 82.544312
182.65378 108.81902 3.9740512 132.05585
183.52957 108.77988 3.7499826 131.46922
184.09277 108.62195 3.218148 83
185.25104 108.09177 3.3593323 52
192.7686 108.06036 3.8193872 106
175.44778 109.90642 3.109868 67.291672
176.41786 109.9514 3.2141211 85
177.7861 109.09565 3.4900978 44
178.21899 109.1124 3.6090326 60.173611
179.44301 109.3321 3.8696527 84.816666
182.44452 109.06313 3.978765 83
183.7477 109.2972 3.5243125 87.336685
184.46423 109.5005 3.2778685 67.909088
185.02763 109.37462 3.3080487 60
193.63092 109.92868 3.9863908 112.05357
175.64233 110.07613 3.6824689 103.04833
176.29868 110.10132 3.6217983 109.10288
179.39368 110.43064 3.9782581 80.320374
183.70984 110.66582 3.4414608 148.96297
184.00368 110.76936 3.3823195 114
185.14894 110.50819 3.4484668 120.8
193.7204 110.13902 3.9854138 71.916672
176.34982 111.54765 3.131614 71
178.57898 111.83061 3.4318237 42.875
179.30516 111.70449 3.7478917 87.327377
183.42349 111.6351 3.4797363 84.75
184.52293 111.39193 3.3812954 105.83334
185.38873 111.92591 3.4235616 68
175.07608 112.47809 3.0213943 42
176.27374 112.48582 3.1282725 119.25
177.98315 112.99615 3.4061406 91
178.5416 112.85683 3.704957 71.145859
179.26801 112.65697 3.829535 79.60022
183.81284 112.46776 3.4627824 56.466667
184.06378 112.49783 3.428097 91
175.21558 113.82159 3.0090258 55
176.18436 113.0941 3.1160913 34
177.96457 113.09245 3.3859773 67.5
178.1246 113.18643 3.8282938 60.765507
179.21777 113.01714 3.9131823 81.185181
182.9086 113.41424 3.9321251 87
183.54004 113.34195 3.808835 92.973755
184.7023 113.2904 3.7293131 118.3474
185.15866 113.40532 3.7166719 86.63636
178.06952 114.23456 3.7732234 53.081017
183.36365 114.31857 3.4489403 58
184.65485 114.76069 3.4912031 71
175.09576 115.05994 3.0066667 57.5
177.68553 115.8959 3.1769223 75
178.31998 115.35919 3.4874339 74.278648
182.87256 115.75339 3.578433 99.666664
183.21205 115.53189 3.471925 114.75
177.94432 116.63831 3.8332634 49.870373
178.01501 116.23305 3.8160405 38.5
180.59769 116.59315 3.4526086 105.5
182.45 116.41817 3.4690561 78
183.08658 116.36784 3.5894816 97
177.87169 117.59499 3.7640948 42.486111
178.55472 117.49301 3.3395677 92
182.40952 117.25193 3.481493 130
177.8974 118.66229 3.846863 45.458332
179.82426 118.91978 3.445823 91
177.21538 122.08344 3.9256423 37
186.91934 75.266708 4.4117007 14.760226
187.03986 75.749664 4.1614056 15.5
196.953 75.003334 4.0613379 79.854431
197.79538 75.125 4.0136333 72.865494
212.44949 75.01297 4.0042496 46.25
214.56032 75.510338 4.4505877 191.20869
186.87596 76.425591 4.4555511 14.8433
214.53171 76.730659 4.4521208 189.94507
186.83249 77.323502 4.410059 14.601362
192.7923 77.950432 4.4191675 29.816706
194.45287 77.434486 4.257442 11
214.51936 77.526253 4.5346031 192.09944
192.75681 78.161331 4.5930853 68.058792
194.00056 78.791847 4.1923757 3
214.51141 78.511131 4.579082 194.93703
186.28696 79.589958 4.0847301 10
194.04288 79.0196 4.2423339 4
214.71178 79.482765 4.5342894 95.753975
180.48732 80.522568 4.4416165 10
214.80562 80.591278 4.4999681 107.10424
180.1815 81.827637 4.0708399 11.75
181.5267 81.830627 4.9643941 1
185.78229 81.936539 4.6712294 10
214.82962 81.4431 4.4371061 99.300613
215.01398 81.97625 4.5166636 87.067032
219.95572 81.969467 4.0639105 68.3125
220.58809 81.740021 4.0286479 44.135418
224.18005 81.865669 4.0276995 72.6875
181.17928 82.475647 4.3468165 4
185.70966 82.213318 4.4507751 10.75
214.97829 82.085182 4.4593873 100.29642
215.09251 82.587784 4.5246463 80.089211
217.9877 82.927017 4.040204 92.5
218.17285 82.861542 4.0492768 59.673935
219.9252 82.041626 4.0247264 79.5
220.5518 82.201927 4.0237117 101.02023
222.72688 82.349731 4.0145702 79.21875
224.02994 82.519623 4.008605 42.24691
215.25043 83.499847 4.480679 77.122849
216.14568 83.854477 4.0119481 29.79183
217.89758 83.56916 4.0248485 65.554314
218.02853 83.360947 4.0251665 102.67159
185.29292 84.380394 4.4800682 14.833333
214.89096 84.91684 4.0101767 71.164734
215.39529 84.472374 4.5284381 77.185295
216.17725 84.807144 4.0763803 104.14286
218.22609 84.15097 4.07166 68.359375
219.88196 84.397369 4.0446796 86
220.79762 84.274002 4.0539942 77.208336
176.04436 85.909477 4.4045486 10
213.80145 85.988258 4.2698817 108.09526
214.9075 85.862457 4.0139236 109.66148
215.42322 85.394577 4.3886166 139.99727
216.09419 85.055603 4.0683694 76.861115
175.91618 86.513313 4.5143981 14
190.96909 86.537346 4.3384657 23.547087
191.1736 86.572472 4.7433925 102.18909
213.79666 86.374893 4.4034491 129.34192
214.64227 86.381699 4.1163492 98.122765
215.74542 86.310555 4.5043068 168.64081
216.01425 86.954575 4.5979576 169.30611
175.76112 87.3423 4.8514762 12
183.76729 87.93293 4.0068684 18.666666
184.79224 87.933159 4.012105 37.42281
185.37445 87.970695 4.0196533 39.096409
186.16098 87.979744 4.0551701 58.688522
187.03934 87.988251 4.0385199 54.753105
203.27168 87.372383 4.028995 21.359825
204.63089 87.969955 4.0933051 87.17083
213.93738 87.711563 4.0101585 75.825958
214.78131 87.279449 4.0087652 56.417686
215.57599 87.144821 4.1580048 115.67735
216.11241 87.358871 4.5291452 174.17072
176.65657 88.858505 4.417274 127.03175
177.39624 88.802063 4.4846101 93.909485
178.27272 88.880363 4.4511943 88.369789
179.37611 88.937653 4.5931053 105.93032
180.11774 88.799065 4.5649128 100.24673
181.36749 88.638893 4.5766916 88.778648
182.23485 88.666267 4.3987188 80.241364
183.20784 88.652397 4.4410253 86.040169
184.27974 88.683022 4.4704595 64.497398
185.25148 88.675812 4.4681964 66.527817
186.3302 88.39357 4.2677622 38.666695
187.08752 88.062363 4.0907965 42.872982
189.81122 88.373726 4.1199851 40.628551
190.53317 88.729645 4.4432669 75.478172
191.53305 88.582169 4.3765478 64.395363
192.11909 88.541962 4.5019488 40.339249
193.32541 88.552681 4.554739 39.892418
194.54922 88.430801 4.1680093 55.345203
195.55132 88.49939 4.3390365 49.333447
196.53111 88.498749 4.1261921 67.16819
197.28238 88.528404 4.3810797 53.947731
198.51605 88.611397 4.2766023 53.142212
199.43242 88.671082 4.3476744 47.4617
200.16251 88.643234 4.5186806 39.267113
204.57857 88.119972 4.0769901 114.67941
213.97867 88.154961 4.0159712 74.975281
214.05501 88.385605 4.0094857 78.94162
215.21439 88.509201 4.0810766 64.680313
216.5038 88.471245 4.5165229 163.49828
176.58383 89.447121 4.4485488 140.33882
177.43452 89.017418 4.5321045 180.06262
178.83913 89.003883 4.1753049 108.96048
179.19272 89.008949 4.1294765 85.740051
180.04413 89.032478 4.2479572 94.810974
181.64832 89.019363 4.648663 84.25
182.69753 89.034271 4.4810162 83.666672
185.97205 89.095642 4.1551132 116.73429
186.19136 89.053078 4.1919913 50.356251
190.50856 89.256554 4.5678983 109.38346
191.71162 89.021164 4.6126823 61.960659
192.64709 89.040588 4.6818247 87.3741
193.7388 89.051926 4.6870008 116.41069
194.58757 89.106415 4.6100712 52.317371
195.16571 89.15741 4.5950909 53.742306
196.10565 89.225708 4.6490431 68.171013
197.59058 89.169678 4.7193408 79.941246
198.50394 89.406036 4.7385731 45.679962
199.85249 89.954536 4.8127322 111.94757
200.45784 89.547623 4.622551 59.783989
201.55237 89.742996 4.7227678 36.814232
202.00717 89.980621 4.8164921 56.586964
205.59955 89.305786 4.061851 198.63194
213.80731 89.885811 4.0008812 59.5
214.64548 89.489838 4.405479 49.716042
215.22346 89.407722 4.0691257 74.486305
216.65475 89.290321 4.3643198 133.7523
217.0481 89.782326 4.8070827 155.42804
176.55426 90.116432 4.7709699 124.3019
179.97469 90.114235 4.3692818 82.709717
180.00417 90.789673 4.0389714 78.5
185.92964 90.357948 4.5687895 64.646484
186.29506 90.705231 4.0907364 51.36499
189.99072 90.596863 4.1405029 105.65968
190.3492 90.033669 4.4699807 111.79423
195.80438 90.108315 4.6266022 61.40625
196.38271 90.644783 4.6311026 111.96163
197.21974 90.023041 4.6186876 78.251945
199.95154 90.013351 4.8301725 96.073715
200.19318 90.069092 4.9259877 99.646469
201.84904 90.033768 4.7595015 49.545528
202.09827 90.133591 4.6634641 34.016994
203.1194 90.87925 4.9100285 45.042095
206.38989 90.752838 4.2822609 158.97862
213.17557 90.602608 4.0045276 59.291237
214.81467 90.391075 4.0112705 76.342651
215.26759 90.932793 4.4788117 138.00325
216.27718 90.646904 4.1881838 75.008591
217.27919 90.33876 4.6337695 168.90105
176.49562 91.094261 4.6328573 144.17247
179.9644 91.354935 4.3929114 79.966064
185.93857 91.344261 4.5202789 69.074486
186.24648 91.29776 4.1794553 55.500748
190.34183 91.06041 4.4783187 115.279
191.74979 91.889877 4.4269786 69.389458
192.84952 91.958244 4.481514 75.73336
193.8284 91.968994 4.4960222 126.19167
194.49481 91.704048 4.5683985 128.25
195.75027 91.775597 4.6069632 123.5
196.25372 91.115929 4.6388793 108.20267
201.32172 91.199524 4.9234228 50.908272
202.94373 91.260216 4.903316 61.497234
203.41304 91.090263 4.9024282 46.310917
204.16449 91.660706 4.9076242 51.289921
206.94495 91.990005 4.078198 50.25
207.08502 91.984337 4.2600331 55.575851
211.72643 91.929398 4.0111856 74.838211
212.51288 91.749817 4.0229321 103.90887
213.25577 91.320557 4.0209327 63.770088
214.66591 91.073296 4.0420175 86.360168
215.54097 91.20726 4.2154512 85.664001
216.27374 91.394318 4.2065191 96.683968
217.74626 91.477287 4.6686182 169.35799
218.01024 91.946167 4.7574015 175.85086
178.29509 92.71698 4.1044989 165.93462
179.45215 92.354256 4.0506244 67.852943
185.86234 92.014015 4.119844 56
186.17833 92.036316 4.0356059 59.115829
190.4222 92.362885 4.1225562 36.942081
192.84782 92.027618 4.467741 45.5
193.92285 92.001709 4.4996266 129.77777
194.90236 92.046799 4.5554571 64.175003
195.77913 92.027969 4.6031132 117.38782
196.11037 92.030479 4.596868 96.928749
199.17599 92.934608 4.8410397 114.875
200.94728 92.597717 4.8961267 99.54113
202.57922 92.446465 4.9401016 54.625
203.87076 92.626526 4.5692101 79.328293
204.66017 92.055695 4.9066167 51.289711
205.01956 92.480209 4.9572983 38.222229
206.97595 92.099602 4.2906084 57.188049
207.0399 92.054298 4.2445354 71.101692
210.91006 92.947136 4.0048704 117.2
211.922 92.86393 4.0512142 79.422623
212.68579 92.274048 4.044486 94.776253
213.62726 92.162537 4.079083 83.67923
214.48073 92.263321 4.0998254 95.787003
215.83592 92.410255 4.6165175 147.43535
216.27142 92.148682 4.2037873 92.323303
217.55481 92.149261 4.5970669 122.89644
218.15292 92.483513 4.7058158 166.97594
175.74155 93.809456 4.8634572 102.48344
176.53502 93.823753 4.9360104 92.916176
177.22699 93.836945 4.9790006 98.872002
178.30659 93.183868 4.172277 166.87907
179.0638 93.867401 4.7904181 65.250603
180.71819 93.920921 4.818058 74.730812
181.45734 93.955795 4.7317762 78.229019
190.5237 93.880463 4.3051372 50.905838
199.91275 93.236572 4.8778901 113.25072
200.69817 93.17794 4.8855996 86.021095
201.84966 93.796234 4.9231215 72.002975
202.3219 93.12516 4.9385581 95.907875
203.62268 93.80101 4.2860012 55.839569
205.34558 93.183945 4.9312949 39.325958
207.93422 93.960846 4.0015049 85.5
208.10991 93.937332 4.0035 41.4375
210.91489 93.781799 4.0181656 63.679264
211.85237 93.159142 4.0388341 97.059212
212.39943 93.223694 4.056756 63.83791
213.40295 93.151711 4.0807557 49.220688
214.43628 93.7229 4.1508932 50.05764
215.3916 93.815247 4.2118297 124.45108
216.51074 93.122383 4.2700315 91.925484
217.74689 93.402336 4.462831 137.66849
218.46085 93.214821 4.6471825 157.59036
175.69521 94.242104 4.6837039 40.096699
176.47263 94.125923 4.7520742 40.45546
177.48521 94.134155 4.836987 41.874783
178.32153 94.294609 4.1173263 85.780418
179.11589 94.131485 4.7506089 83.931946
180.26106 94.140564 4.819643 98.559113
182.99428 94.906548 4.4673409 83.552269
183.03723 94.852539 4.5041504 81.297379
189.972 94.347557 4.9711723 88.333336
190.64633 94.06163 4.3026485 60.593468
191.1279 94.584518 4.2729115 70.996445
202.8286 94.062988 4.6503682 50.315235
203.06268 94.02861 4.4101558 58.25
204.77126 94.910667 4.1318636 41.476562
205.81409 94.243172 4.1622972 44.913479
206.11734 94.273483 4.0775504 97.53894
207.71906 94.899384 4.028367 86.291397
208.19945 94.542282 4.0408273 48.018188
209.92889 94.894028 4.0032434 59.083336
210.6127 94.483711 4.0200195 59.212669
211.26257 94.08548 4.0184717 55.622967
212.66504 94.755615 4.144803 81.198639
213.75264 94.392906 4.157434 53.473064
214.58479 94.262543 4.1802378 59.475304
215.53625 94.312263 4.2202835 131.92328
216.84145 94.626511 4.4289455 69.471634
217.49951 94.105034 4.4643011 62.983883
218.79533 94.062653 4.8656573 160.4117
219.05013 94.609459 4.7966709 153.14378
175.53008 95.127808 4.5752168 39.527637
176.21875 95.090538 4.5249515 36.326866
177.08879 95.225479 4.5236535 19.625
179.22575 95.18145 4.3089209 66.732101
180.06749 95.469513 4.2867289 66.875
182.97058 95.744591 4.4737062 134.40036
183.62839 95.400833 4.1353006 125.37646
187.6254 95.637573 4.0263495 57.50988
188.72931 95.147011 4.0368533 68.20546
189.13179 95.170219 4.0539856 56.813084
191.58012 95.864555 4.31423 120.68249
192.88116 95.694504 4.1940241 70.058807
193.21016 95.67144 4.2706542 66.856461
194.6124 95.541939 4.3354616 64.924774
195.77545 95.306549 4.7278271 117.55556
205.28374 95.490479 4.26262 50.254601
206.88516 95.419594 4.0342607 104.23885
207.88892 95.173332 4.0313168 87.573853
208.29668 95.17556 4.1900887 52.164265
209.76631 95.388878 4.0136499 118.9719
210.5862 95.31424 4.029109 55.723557
211.77525 95.380859 4.0963187 61.612045
212.42136 95.218933 4.1212754 76.61763
213.59718 95.440308 4.2044554 50.432835
214.75127 95.872849 4.2826147 55.442261
215.92873 95.396774 4.3307662 70.204178
216.65518 95.163689 4.3814554 90.418716
217.88948 95.75425 4.5595136 77.335678
218.6252 95.568787 4.6197271 107.06828
219.23189 95.149193 4.8570933 95.495232
178.53604 96.322624 4.1261697 83.851242
179.19174 96.24025 4.3646703 60.134426
180.02011 96.402718 4.3725004 103.5
182.93275 96.808327 4.4066086 89.051552
183.02045 96.199112 4.2970271 119.45493
186.79448 96.742302 4.0825157 125.72457
187.84399 96.602943 4.1179843 92.953087
188.67323 96.38533 4.1052532 94.788376
189.21774 96.898483 4.0143166 194
191.42662 96.111786 4.400178 74.290482
192.82327 96.212921 4.375524 48.149071
193.81767 96.295425 4.3973875 109.47632
194.80257 96.429871 4.6791859 141.83702
195.7076 96.325424 4.4396286 86.298111
196.05359 96.485352 4.5501113 45
201.99429 96.541939 4.901885 85
202.26054 96.614723 4.4601612 92.899719
205.85852 96.220459 4.0332222 68.875
206.81184 96.157333 4.1382575 89.139877
207.89613 96.402222 4.1139121 68.518074
208.39043 96.230286 4.1908355 83.592522
209.88226 96.139122 4.0334654 146.81375
210.71523 96.2453 4.1092119 109.13867
211.55678 96.169136 4.1367879 130.17004
212.6573 96.3284 4.1964869 111.34264
213.5619 96.229256 4.2427254 71.93679
214.39549 96.100586 4.2706919 47.441338
215.7475 96.123901 4.3095512 108.73318
216.3111 96.200745 4.3235359 111.53156
217.53368 96.132858 4.5213852 66.60228
218.6861 96.708961 4.6313834 50.785675
219.68604 96.265434 4.8326259 146.38617
220.02911 96.939087 4.9297328 155.12576
178.47339 97.358109 4.2024684 112.85603
179.17082 97.176476 4.3133459 58.601429
182.93222 97.322067 4.2640142 105.93623
183.18886 97.468063 4.2378559 112.23471
186.73047 97.53067 4.5162821 130.5182
187.59576 97.444664 4.4645758 83.098373
188.58929 97.272522 4.2921033 149.55943
189.3824 97.174454 4.3085437 154.00523
192.16489 97.675079 4.0530963 13.5
197.46365 97.640762 4.8560348 169.375
206.92665 97.116257 4.5052891 50.64283
207.82056 97.601768 4.1677589 101.31293
208.73065 97.290688 4.1904173 81.622147
209.36397 97.537872 4.1978703 70.867905
210.84966 97.503136 4.1454597 70.78817
211.6759 97.654488 4.2107749 54.58604
212.45157 97.224533 4.2295365 54.918137
213.45221 97.335197 4.271584 80.502266
214.65033 97.539757 4.3314829 53.55743
215.53523 97.633247 4.3684111 42.520813
216.78108 97.576698 4.4249806 127.17795
217.60429 97.239746 4.4708371 79.972267
218.45651 97.72422 4.6608725 71.889626
219.9165 97.187141 4.7649746 118.82804
220.08676 97.264786 4.9332023 145.01089
178.9799 98.892616 4.180119 99.947319
179.14085 98.396622 4.2613387 55.829262
182.85204 98.631638 4.2558861 77.852135
183.0618 98.091568 4.5240316 102.46667
186.97595 98.121994 4.5315819 100
187.78275 98.507523 4.6259542 97.561707
188.84094 98.558304 4.317606 138.67722
189.16376 98.646179 4.5260129 82.022064
195.87569 98.851837 4.9214573 115.87778
196.05603 98.897552 4.9391594 138.74074
197.405 98.037872 4.8480835 148.5
200.97375 98.586868 4.1308799 58
201.20013 98.589447 4.1297159 60.890625
202.8007 98.672668 4.2042174 34.666664
203.53796 98.855057 4.1261024 62.145832
204.38591 98.906601 4.1741638 58.125
206.76164 98.728088 4.1374841 58.5
207.7014 98.289703 4.2495251 101.4335
208.63443 98.660484 4.2458067 85.680031
209.64218 98.166527 4.2245173 60.133289
210.60669 98.365707 4.2109237 84.507133
211.84427 98.707924 4.2439365 57.188366
212.79381 98.822777 4.3241215 103.40879
213.68683 98.424286 4.3546214 71.102768
214.70631 98.460678 4.3873115 50.492294
215.45973 98.535789 4.4108496 41.386627
216.38789 98.481155 4.4457746 54.562969
217.80986 98.348389 4.5725551 89.275345
218.07411 98.377037 4.6068883 82.897919
219.73161 98.744415 4.771852 75.63723
220.51497 98.245399 4.9307561 154.27203
179.13989 99.44783 4.2525425 60.477154
182.80254 99.544868 4.2454333 76.27417
189.45316 99.060867 4.7247195 34.364582
192.82779 99.509232 4.4684911 91.33033
193.2605 99.510979 4.4128771 90.575439
194.16412 99.468536 4.7672977 92.094559
195.92241 99.591209 4.9219632 32.4189
196.08992 99.341835 4.8947473 98.846031
197.28703 99.828796 4.9979324 88
203.50906 99.286819 4.1726065 62.75
204.07732 99.213226 4.2640858 58.25
205.86383 99.959198 4.116261 43.5
206.68863 99.481277 4.214489 48.056519
207.96164 99.220154 4.5115242 56.933563
208.82156 99.325081 4.2867999 82.544807
209.69629 99.15036 4.2829633 71.146271
210.46881 99.747772 4.3416338 35.848644
211.58287 99.681198 4.2690029 102.94824
212.50484 99.092255 4.3124299 92.06517
213.45395 99.434982 4.3893313 63.190201
214.68645 99.737671 4.4896135 84.634186
215.63026 99.833038 4.508173 41.121944
216.53027 99.788826 4.537838 41.072063
217.59448 99.416611 4.5253344 135.4534
218.45483 99.296112 4.5919595 77.665726
219.52586 99.556252 4.7851777 54.703602
220.49471 99.302666 4.8527498 105.30444
221.09596 99.715942 4.974246 135.62074
178.99321 100.86904 4.9972706 14
179.08601 100.11814 4.1701083 54.277607
182.71761 100.73409 4.3231487 98.129868
186.16467 100.09481 4.3667617 66.541664
187.85684 100.47443 4.6204996 79
192.46252 100.41801 4.3819146 94.131714
193.57695 100.05389 4.980165 86.21212
194.27527 100.21393 4.9208212 86.666664
200.65057 100.43748 4.4421539 78.855469
201.85596 100.67616 4.6538339 54.25
202.11792 100.76489 4.741178 67.611687
204.34499 100.94867 4.4925613 70.370514
205.93649 100.29576 4.5418282 62.622395
206.5647 100.37679 4.6361284 77.900375
207.30618 100.41706 4.7613583 43.525551
208.79807 100.52144 4.403276 83.606071
209.79366 100.39695 4.3577433 78.609596
210.49463 100.20866 4.3541722 57.359367
211.66948 100.47649 4.2872877 153.91357
212.64323 100.17874 4.3437195 72.997566
213.66837 100.11202 4.4440579 93.491615
214.71889 100.14227 4.5057368 62.396175
215.57524 100.45718 4.5425749 45.039028
216.43686 100.37374 4.5716653 39.93222
217.60165 100.30273 4.5872164 95.241997
218.76457 100.28275 4.6813054 89.07515
219.5112 100.57016 4.8383431 66.825424
220.49216 100.34498 4.8807383 71.963181
221.3667 100.4507 4.9679446 132.98497
178.99683 101.99863 4.0014544 58
179.08257 101.16282 4.1127486 51.870514
182.76044 101.42834 4.26966 129.57545
183.43565 101.54011 4.1631732 86.335678
184.31883 101.47285 4.0576477 33.53125
189.85268 101.12961 4.0449481 20
192.4565 101.11526 4.3179445 73.524979
202.80368 101.59259 4.2343245 71.670738
203.45697 101.3871 4.5006924 67.889244
204.37534 101.1488 4.4229517 71.763344
206.92914 101.77614 4.6628542 52
207.32962 101.70679 4.7684221 90.610558
208.85747 101.47426 4.7383027 52.667797
209.82007 101.46538 4.4143286 68.156372
210.52403 101.52453 4.4272571 76.619431
211.81139 101.327 4.3414035 151.83842
212.73691 101.32074 4.3895926 58.258438
213.72185 101.55987 4.4688148 155.13763
214.76749 101.57603 4.5443983 60.060585
215.67212 101.66422 4.6132774 59.54723
216.53987 101.73985 4.6436114 39.021648
217.4482 101.73589 4.6764708 38.537628
218.84251 101.19318 4.8676596 172.62752
219.245 101.25893 4.7790751 80.658852
220.45175 101.73031 4.9691482 53.425659
221.63113 101.46675 4.9582572 87.41124
178.97746 102.49479 4.0781612 57.36237
179.02832 102.23468 4.3964381 55.354614
182.65462 102.45238 4.4651041 79.070992
189.92496 102.64877 4.2086945 138.75
190.91504 102.55096 4.2433352 155.66499
191.43622 102.47633 4.3903832 136.73988
201.8078 102.75292 4.2269821 96.75
202.09854 102.86034 4.2436347 90.3125
207.57085 102.39513 4.8005977 32.5
208.94424 102.07384 4.9185133 68.663109
209.63982 102.19898 4.450603 62.768295
210.71748 102.39793 4.4905186 86.82943
211.40752 102.20636 4.514482 49.878326
212.71539 102.68 4.4554033 60.022179
213.64262 102.39365 4.5142422 133.18404
214.4814 102.47029 4.5526037 96.597038
215.72351 102.59626 4.6420407 82.679832
216.51178 102.79202 4.6766481 39.194626
217.69173 102.64736 4.7103829 37.506302
218.63742 102.236 4.7215185 116.67271
219.85677 102.59427 4.8923502 72.379807
220.27707 102.45841 4.9461455 68.871101
221.1915 102.19456 4.9832592 45.724998
178.96184 103.34749 4.3287477 53.063698
179.0136 103.38452 4.5272236 63.148632
182.64494 103.85333 4.4912963 104.8887
188.23503 103.4664 4.7075663 91.25
196.26118 103.31474 4.5283179 52
204.63512 103.19167 4.1394968 26
209.82361 103.16418 4.5235448 60.287785
210.75273 103.23157 4.5292683 77.23893
211.5517 103.2786 4.5472479 80.563736
212.59708 103.18611 4.4704971 67.697708
213.69914 103.29401 4.5297461 56.147896
214.332 103.35977 4.5662975 58.780052
215.55266 103.27337 4.6463456 76.272255
216.49948 103.47079 4.7136269 47.86013
217.65808 103.76801 4.7841206 38.089657
218.46083 103.80653 4.8197103 38.663708
219.83337 103.22889 4.8951817 78.355347
220.14929 103.29596 4.9319677 88.254379
221.0892 103.26022 4.9817734 41.875
178.96133 104.49969 4.4002328 55.334019
179.01114 104.83949 4.1216135 50.5625
182.81038 104.38638 4.2729454 109.94924
183.03612 104.37205 4.0838132 111.19241
191.53134 104.87469 4.9862185 77.917526
192.99423 104.67152 4.0731401 92.5
193.48761 104.59042 4.1024652 89.518669
194.07243 104.6948 4.204021 49
199.79927 104.67075 4.9818425 69.666664
202.53535 104.86187 4.5632181 64.90625
205.68085 104.65204 4.2716169 89.5
209.86107 104.05494 4.8028703 50.571259
210.70619 104.75089 4.6591821 55.717182
211.82625 104.32578 4.6137204 90.788048
212.34447 104.34863 4.6017265 52.106831
213.80429 104.4716 4.5916433 61.917397
214.44846 104.22746 4.6155744 49.889153
215.63301 104.42523 4.6885529 51.859699
216.58688 104.62246 4.7675638 79.553818
217.48218 104.25201 4.7662153 39.574627
218.7019 104.11874 4.8241053 37.048161
219.48561 104.1132 4.8562646 55.618053
220.51526 104.41343 4.9388719 81.975822
178.90569 105.43272 4.4211597 56.399643
179.01028 105.03987 4.1243696 54.5
182.5813 105.50537 4.5198889 73.644249
189.7292 105.3543 4.8674626 117.02409
190.43475 105.20225 4.9059224 115.74574
191.18845 105.03366 4.7860355 106.275
192.17371 105.86038 4.8991117 82.712051
193.45908 105.841 4.3660235 112.58826
194.15439 105.78757 4.5347552 103.14629
195.28639 105.54513 4.6679373 103
199.76663 105.30244 4.957324 73.75
201.62292 105.90136 4.9253139 120
202.18643 105.13197 4.6801696 90
204.86665 105.80849 4.9036245 120.5
205.74586 105.38677 4.551239 98
206.43954 105.05895 4.8949585 119
209.80406 105.55862 4.7289963 77.59697
210.76967 105.13389 4.6107326 58.265213
211.83722 105.54632 4.6618309 79.755035
212.48581 105.46498 4.6739888 66.555794
213.58456 105.41577 4.6024628 93.460373
214.403 105.20456 4.6556034 51.51469
215.59558 105.21198 4.7020607 51.890453
216.44322 105.21677 4.7501855 73.406075
217.74352 105.40511 4.8417506 42.631989
218.50388 105.31568 4.8698983 38.039837
219.46463 105.78521 4.9400983 65.967178
220.24419 105.6642 4.9764662 128.36577
221.05672 105.74608 4.9737244 69.458328
178.85362 106.31516 4.3640771 55.63483
182.46397 106.85007 4.3806524 104.43687
188.48093 106.96094 4.7789831 96
192.25806 106.35658 4.5080872 115
193.561 106.48418 4.6748772 93.810997
194.13596 106.46245 4.7252402 47.605
196.24294 106.55838 4.7921762 72
201.62051 106.42285 4.9934301 95
204.43112 106.09877 4.5728488 39.5625
208.88341 106.57529 4.8352666 60
209.59236 106.50811 4.8898759 93.681541
210.92758 106.14497 4.730525 45.679222
211.25824 106.81392 4.8105412 59.821545
212.7982 106.4093 4.7348251 61.377991
213.26744 106.22961 4.7023783 63.803162
214.49693 106.62658 4.7050877 80.171356
215.58127 106.39857 4.7649794 48.579151
216.36078 106.16535 4.8006272 40.715912
217.46683 106.5355 4.8736534 70.230164
218.66075 106.62423 4.9269204 37.08622
219.43269 106.1615 4.9499249 36.634754
220.31482 106.29754 4.9826603 122.8329
221.16847 106.19167 4.9698691 60.25
178.78471 107.36149 4.2248449 52.315926
182.50359 107.47588 4.372879 95.864769
188.53288 107.0077 4.768837 76
198.25952 107.54465 4.7719297 120
201.83484 107.22569 4.8569422 101
202.49484 107.70512 4.7053218 68.890625
203.53366 107.44353 4.656425 92.800003
208.87651 107.80223 4.8442678 18
209.36082 107.1678 4.9570456 66.014648
211.71687 107.19914 4.7805214 69.780373
212.46019 107.11196 4.7757478 52.92828
213.56914 107.62507 4.7961717 56.860989
214.74519 107.22661 4.7540789 60.253998
215.24626 107.23985 4.7781358 43.706783
216.41992 107.20953 4.8473277 43.089966
217.58891 107.51153 4.8992057 78.105141
218.65207 107.46313 4.947351 37.280777
219.45238 107.37782 4.9739218 38.022762
220.06393 107.18712 4.9949064 40.827019
177.57222 108.99924 4.5515957 39
178.79024 108.59424 4.4066615 54.937565
182.77846 108.85873 4.0899019 128.42969
183.09714 108.90724 4.0970001 155.32365
202.08112 108.82056 4.5774488 74.5
209.25476 108.05994 4.960063 45.125
211.69229 108.36943 4.9179711 139.47871
212.61096 108.47414 4.840538 75.802902
213.48537 108.19366 4.8325462 65.975952
214.46121 108.24652 4.7797575 69.61985
215.33827 108.34978 4.8415017 52.468876
216.70175 108.58167 4.9053373 55.919273
217.54379 108.84686 4.9700465 56.010139
218.21764 108.37842 4.9802589 94.273766
219.20821 108.36288 4.9932284 36.253475
176.70084 109.9359 4.5211868 104.375
177.63477 109.05667 4.5414081 38.520832
178.07245 109.13699 4.0884256 38.291664
182.67073 109.15884 4.2198362 124.56264
183.35364 109.47511 4.0937381 125.78056
193.87396 109.82071 4.0050254 59
201.98671 109.09268 4.999167 120
202.13733 109.25155 4.6785545 70.333336
211.94727 109.14777 4.9273496 113.35017
212.59875 109.3891 4.9272361 105.92661
213.52274 109.83713 4.9493837 54.350391
214.4568 109.49965 4.9061551 64.865341
215.53471 109.52446 4.8670516 49.168453
216.83708 109.44536 4.9483776 42.578293
217.30786 109.51411 4.982738 41.795677
218.14134 109.17956 4.970242 41.635414
219.00757 109.07917 4.9994707 34
175.3916 110.07377 4.3558455 117.05193
176.55199 110.08142 4.1430635 109.38431
179.3714 110.60429 4.4557133 82.416672
182.41338 110.63612 4.6271434 86.098763
194.27536 110.80357 4.0326686 96
212.97363 110.28923 4.9172034 69.675064
213.49471 110.16373 4.9367528 57.883484
214.52176 110.29773 4.9737501 45.205711
215.70822 110.59677 4.9291782 138.82971
216.46391 110.63493 4.9725108 48.510857
217.58005 110.54875 4.9745474 36.738098
218.01474 110.19974 4.9868569 35
179.3309 111.4348 4.2577066 88.574081
182.32364 111.82593 4.63521 53.25
190.2373 111.92861 4.9835873 100.66666
207.90787 111.76587 4.970891 22.5
212.93396 111.34343 4.9772019 84.385994
213.63 111.49541 4.9793983 49.229286
214.61613 111.09892 4.9695458 59.081669
215.80058 111.35521 4.9589357 125.63678
216.30396 111.61583 4.9855433 88.005379
217.13518 111.21545 4.9903259 36.333332
178.62175 112.98848 4.2166424 75.6026
179.23358 112.35001 4.1307645 94.421425
182.32132 112.48566 4.6500177 87.972229
189.74507 112.65375 4.967689 91.666664
190.08284 112.64577 4.9863496 74.125
197.69978 112.48904 4.623672 91.755959
208.30893 112.64125 4.8403854 27.25
213.7041 112.29575 4.9935684 49.850895
214.13063 112.14423 4.993783 42.166664
215.81033 112.45837 4.9774914 74.219757
216.0778 112.4931 4.9932051 55.699913
178.67299 113.06382 4.2873893 87.525185
179.19415 113.01823 4.4258256 90.215332
182.64156 113.40263 4.6221485 89.280365
183.73399 113.38572 4.3427253 88.784157
184.49857 113.36865 4.3697491 91.456886
185.13518 113.35906 4.3848248 88.833336
189.67218 113.21157 4.9804196 46
193.83383 113.25368 4.1258755 79.25
194.88618 113.31492 4.3474503 100.66666
195.16788 113.23933 4.5270977 93.25
197.4422 113.40871 4.9175572 50.375
213.78836 113.15506 4.9886842 64.958336
215.91887 113.04234 4.9558969 59.25
216.1588 113.37812 4.9882078 53.402779
178.04124 114.44253 4.4463706 48.066666
185.21457 114.64398 4.4588509 33
194.72949 114.42936 4.334034 56.546295
195.1637 114.56769 4.5325837 73.666664
216.32414 114.09045 4.9689007 52
177.99655 115.63683 4.2991276 56.416668
178.01802 115.3555 4.4925542 58.895832
185.20567 115.08293 4.2726402 35
188.90523 115.16325 4.9550986 217.33333
189.3091 115.11688 4.9820166 239.8889
177.95856 116.52905 4.3939304 74.262497
185.52983 116.78181 4.0676618 81
177.93692 117.46904 4.5135159 45.552082
185.53281 117.13843 4.263854 127
194.94775 117.88123 4.232379 51
177.90323 118.55629 4.6635423 54.59375
195.53532 118.35058 4.3156857 40
196.46928 120.55865 4.3306274 49.666668
186.22487 121.92326 4.0758424 121
185.70596 122.51768 4.1881094 76.199997
186.23689 122.28745 4.3020358 87.333336
192.03984 122.92253 4.8285589 92
193.64966 122.53733 4.7307873 159
185.64568 123.29305 4.6674833 78.666664
186.06534 123.02377 4.9973044 99
186.93764 75.4049 5.4272308 15.860516
187.01637 75.602562 5.7081075 16
214.57098 75.507332 5.4791141 190.1817
186.87341 76.393173 5.5313435 16.273712
214.53581 76.775215 5.2482877 191.77425
186.81903 77.270432 5.579875 15.533618
191.70964 77.916367 5.7332764 221.61589
192.42924 77.919128 5.6704268 219.08479
214.52318 77.465225 5.4169188 197.62788
191.74629 78.089439 5.6958156 219.80112
192.55106 78.219574 5.56846 186.61293
214.50299 78.504356 5.4907851 200.50421
214.68452 79.428413 5.5453811 84.224617
214.79524 80.705811 5.546979 101.81668
214.80957 81.220352 5.4748383 92.567482
215.00351 81.987457 5.7209249 99.676811
214.98523 82.138344 5.5262332 126.71305
215.08574 82.592583 5.548243 131.53232
185.384 83.852509 5.2792754 13
215.23409 83.490845 5.5049691 129.88725
215.369 84.506546 5.5082417 88.407562
186.71594 85.40152 5.8331108 10
215.43578 85.364838 5.441349 168.64928
190.99696 86.526276 5.5884953 93.646301
191.16429 86.538986 5.6134958 93.016281
213.87332 86.563278 5.608912 64.092499
214.02328 86.354591 5.5341678 26.964497
215.79877 86.426796 5.4657259 183.02557
216.00864 86.96933 5.3276157 188.07527
176.11073 87.582848 5.0729785 7
191.21106 87.01889 5.5684891 111.4375
215.9865 87.060623 5.4094458 176.45834
216.10101 87.345726 5.4261212 181.77922
176.60803 88.839119 5.0287914 78.630608
177.69615 88.7957 5.027144 31.037355
178.41956 88.863426 5.028657 63.52182
179.64645 88.913033 5.1812091 106.7222
180.23532 88.819786 5.4313493 101.50002
181.21935 88.65992 5.1595731 101.92371
182.32593 88.662712 5.1868138 68.314514
183.56133 88.691589 5.1877036 61.56879
184.53308 88.705368 5.1468701 62.51432
185.63657 88.686058 5.2656174 61.862255
186.02228 88.631622 5.3557091 34.999771
190.52113 88.891502 5.372571 115.55234
191.58263 88.875763 5.383893 42.327274
192.26767 88.860878 5.4248695 59.331043
193.28246 88.866554 5.3866549 63.560883
194.1571 88.98262 5.5774546 58
195.2973 88.857903 5.2630353 38.993435
197.57491 88.972542 5.5791607 29.555553
199.60989 88.965179 5.0313807 49.302483
216.5266 88.513329 5.424716 182.62477
176.67055 89.550018 5.031508 43.620312
177.17326 89.026596 5.0013943 18
178.6541 89.045479 5.0163054 25.640045
179.53835 89.112167 5.1355972 108.94814
180.20532 89.208679 5.4298105 70.476234
181.23935 89.050034 5.2163668 71.1875
183.90829 89.02388 5.3651667 25.4375
184.08923 89.096634 5.3275709 57.5
185.87915 89.379616 5.2718329 84.502419
186.00511 89.80365 5.072834 96.359253
190.50562 89.206253 5.3543272 115.95349
191.95013 89.004822 5.1586485 108.992
192.65796 89.015923 5.380352 58.333115
193.67352 89.051048 5.2950139 82.504906
194.35902 89.046776 5.5710053 49.40506
195.38629 89.166687 5.4317131 63.047558
196.22223 89.160461 5.4808798 55.492294
197.53973 89.219551 5.5924811 93.383698
198.66 89.459061 5.2119942 43.378307
199.57637 89.130432 5.2448225 40.901169
200.07385 89.99855 5.0806503 77
201.63049 89.963425 5.017436 42.617138
216.77885 89.169739 5.3946114 180.30653
217.07153 89.874901 5.4457555 178.63147
176.56961 90.351532 5.0410881 62.472328
179.9209 90.10186 5.2308059 29
180.50902 90.055603 5.3485909 29.5
185.89896 90.32692 5.2488031 68.126999
186.00305 90.393715 5.1576066 91.3601
190.36523 90.023544 5.2017756 127.91234
196.97578 90.462074 5.4307566 92.919998
197.1924 90.034729 5.5749702 92.844711
199.95621 90.014084 5.3647289 128.14302
200.22281 90.07428 5.2513461 80.438278
201.56047 90.07048 5.2318764 46.67305
202.37628 90.975082 5.6299038 54.182865
203.28354 90.98172 5.0195899 46.205116
217.25703 90.329216 5.4101586 175.92201
176.47256 91.322655 5.0431948 116.41949
180.22511 91.481422 5.3484368 57
181.73796 91.852394 5.5125885 26
185.90816 91.356102 5.2531366 53.673439
186.88588 91.654022 5.282382 65.120537
187.38826 91.739235 5.3450003 42.130966
188.51012 91.751045 5.4092898 62.204868
189.88521 91.733734 5.7283077 46.452164
190.29669 91.052422 5.4008241 120.86433
196.69427 91.127678 5.470736 88.514069
201.23448 91.261497 5.0332174 93.010735
202.7229 91.156647 5.5152469 88.108406
203.63129 91.271194 5.0509038 54.640652
204.10495 91.608704 5.0531664 51.687836
217.71931 91.479263 5.4492016 178.50563
218.0054 91.962494 5.4771643 185.34526
180.36722 92.327271 5.4505243 80.918518
181.17145 92.32016 5.5250134 30.833332
182.24133 92.889336 5.5130267 61.166668
184.85262 92.597008 5.2264199 12
185.34386 92.881157 5.3353896 39.543095
186.75323 92.93045 5.3490095 29.444496
187.20319 92.779976 5.3613353 35.606735
188.76802 92.265289 5.531219 14.583333
189.18341 92.115395 5.5703816 42.900002
190.34346 92.328415 5.7197323 59.904469
191.18442 92.699158 5.6301832 16.75
196.25853 92.580299 5.8457484 29.889856
200.93941 92.642334 5.0291967 153.36111
202.96484 92.079758 5.4888334 105.3588
203.89427 92.536285 5.602839 50.602222
204.73955 92.077332 5.2024593 53.710102
205.05391 92.488586 5.194993 40.296574
217.97281 92.092445 5.4754839 176.51219
218.14958 92.557678 5.467947 177.52441
175.39607 93.933998 5.0416017 84.952385
176.72803 93.858864 5.0466285 91.972923
177.52779 93.864258 5.0861077 87.078163
178.58623 93.92588 5.1801167 69.202896
179.10516 93.834564 5.1381245 66.75
180.61578 93.921967 5.1738815 74.904594
181.50549 93.939796 5.1240048 71.307564
182.70274 93.787384 5.5590825 34.628529
183.59766 93.542892 5.2404847 26.719807
184.6274 93.775284 5.3491964 13.066406
